ply
format ascii 1.0
element vertex 735
comment vertices
property float x
property float y
property float z
end_header
-1.34100770950317383 -6.30801677703857422 0.00499999523162841797
-1.05245459079742432 -6.8415217399597168 0.00499993562698364258
-0.710033297538757324 -6.36669445037841797 0.00499999523162841797
-1.23644530773162842 -6.72024154663085938 0.00499999523162841797
-1.55210089683532715 -2.76071834564208984 0.00500014424324035645
-1.37573456764221191 -5.77449226379394531 0.00500005483627319336
-2.3260502815246582 -2.76071882247924805 0.00500017404556274414
-2.66629314422607422 -5.57101726531982422 0.00499999523162841797
-1.55695855617523193 -5.57101726531982422 0.00500002503395080566
-2.33009147644042969 -3.58593344688415527 0.00500011444091796875
-1.48519301414489746 -5.43381452560424805 0.00500005483627319336
-1.64834952354431152 -6.69258642196655273 0.00500002503395080566
-1.51468586921691895 -6.69971895217895508 0.00499996542930603027
0.150713086128234863 -3.79901981353759766 0.00500008463859558105
-0.661744773387908936 -6.20051193237304688 0.00499999523162841797
-2.20006704330444336 -3.46955609321594238 0.00500014424324035645
-1.707771897315979 -6.74876737594604492 0.00499996542930603027
-1.28572428226470947 -6.54823493957519531 0.00499996542930603027
-2.41669178009033203 -5.66751956939697266 0.00500005483627319336
-0.566317856311798096 -5.77449226379394531 0.00500002503395080566
-0.473894119262695312 -6.65451145172119141 0.00499996542930603027
-0.83612138032913208 -6.02749156951904297 0.00499999523162841797
-1.5573275089263916 -6.63381862640380859 0.00499996542930603027
-1.7245631217956543 -5.20233058929443359 0.00500005483627319336
-0.0644916296005249023 -6.10754585266113281 0.00499999523162841797
-1.01721489429473877 -6.77488851547241211 0.00499996542930603027
-0.235655665397644043 -6.37455081939697266 0.00499999523162841797
-0.88548123836517334 -6.47288322448730469 0.00500002503395080566
-1.54257035255432129 -6.84370326995849609 0.00499999523162841797
-0.946786284446716309 -6.85225296020507812 0.00499999523162841797
-0.835386037826538086 -5.66751956939697266 0.00500005483627319336
-0.258935809135437012 -4.75573062896728516 0.00500005483627319336
-0.70461881160736084 -6.8415217399597168 0.00499993562698364258
-1.0904381275177002 -6.74572277069091797 0.00499999523162841797
-1.33724880218505859 -6.83486604690551758 0.00499993562698364258
-1.32906699180603027 -6.87245464324951172 0.00499996542930603027
-0.765151023864746094 -6.46004390716552734 0.00499999523162841797
-1.40811097621917725 -5.34095621109008789 0.00500005483627319336
-0.840084493160247803 -6.53747844696044922 0.00499996542930603027
-1.61502337455749512 -5.08524799346923828 0.00500002503395080566
-2.12517929077148438 -5.99849939346313477 0.00499999523162841797
0.22479546070098877 -4.64336109161376953 0.00500005483627319336
-0.773407340049743652 -6.57889556884765625 0.00499999523162841797
-1.53895533084869385 -6.81385087966918945 0.00499996542930603027
-1.25706088542938232 -6.84586715698242188 0.00499993562698364258
-0.542198419570922852 -6.69258594512939453 0.00499996542930603027
-0.920080363750457764 -6.82804012298583984 0.00499993562698364258
-0.586041748523712158 -6.72680521011352539 0.00499996542930603027
-0.76789546012878418 -6.48536396026611328 0.00499996542930603027
-1.13272440433502197 -6.8415217399597168 0.00499999523162841797
-0.358407497406005859 -6.56385707855224609 0.00499996542930603027
-0.303854465484619141 -5.66751956939697266 0.00500002503395080566
-1.754974365234375 -5.4629054069519043 0.00500002503395080566
-1.52002358436584473 -6.72024154663085938 0.00499999523162841797
-0.645037829875946045 -6.79889631271362305 0.00499999523162841797
-1.61990690231323242 -6.48536443710327148 0.00500002503395080566
-1.95170497894287109 -6.44683122634887695 0.00500002503395080566
-0.974273085594177246 -6.50344705581665039 0.00500002503395080566
-1.26062893867492676 -6.62520170211791992 0.00499999523162841797
-1.65291833877563477 -6.76927614212036133 0.00499996542930603027
-1.17077183723449707 -6.54289150238037109 0.00499996542930603027
-0.994119703769683838 -5.83245182037353516 0.00500002503395080566
-3.92919111251831055 -3.9893796443939209 0.00500014424324035645
-1.75255393981933594 -5.8688054084777832 0.00500002503395080566
-1.29161560535430908 -6.80144453048706055 0.00499996542930603027
-1.39677226543426514 -6.25196075439453125 0.00499996542930603027
-0.571598410606384277 -6.82572603225708008 0.00499996542930603027
-0.180568516254425049 -3.98937869071960449 0.00500008463859558105
-1.08084702491760254 -6.86854171752929688 0.00499996542930603027
-2.78363871574401855 -4.7007293701171875 0.00500011444091796875
-2.94216513633728027 -5.30799055099487305 0.00500005483627319336
0.142609357833862305 -5.5185394287109375 0.00499999523162841797
-0.545922160148620605 -6.74876737594604492 0.00499999523162841797
-1.23534131050109863 -6.38990020751953125 0.00499999523162841797
-1.02120351791381836 -6.86255550384521484 0.00499993562698364258
-0.937796175479888916 -6.65851068496704102 0.00499999523162841797
-0.650254487991333008 -6.78580379486083984 0.00499999523162841797
-0.624210536479949951 -6.67785406112670898 0.00499996542930603027
-0.846160411834716797 -6.31681632995605469 0.00499996542930603027
-0.881490707397460938 -4.75573062896728516 0.00500005483627319336
-0.90133368968963623 -6.83932161331176758 0.00499990582466125488
-2.40619897842407227 -3.89680719375610352 0.00500008463859558105
-0.949508309364318848 -6.71690893173217773 0.00499996542930603027
-1.62830543518066406 -6.23193502426147461 0.00499999523162841797
-2.1955559253692627 -5.43381452560424805 0.00500002503395080566
-1.74009394645690918 -6.73323774337768555 0.00499996542930603027
-0.720152676105499268 -6.50931119918823242 0.00499999523162841797
-1.27496302127838135 -6.48536443710327148 0.00500002503395080566
-1.06631231307983398 -6.80895423889160156 0.00499996542930603027
-1.57277631759643555 -6.51509666442871094 0.00499996542930603027
-1.38403618335723877 -6.83710336685180664 0.00499996542930603027
-0.801326990127563477 -6.8039703369140625 0.00499996542930603027
0.699919700622558594 -4.38689565658569336 0.00500008463859558105
-1.18052685260772705 -6.78580379486083984 0.00499999523162841797
-1.04541420936584473 -5.12565708160400391 0.00500005483627319336
-2.30561399459838867 -5.85084629058837891 0.00500002503395080566
-0.92457282543182373 -6.61638021469116211 0.00499999523162841797
-0.633755683898925781 -6.8039703369140625 0.00499996542930603027
-1.36051082611083984 -6.72024154663085938 0.00499999523162841797
-2.33101224899291992 -5.98352766036987305 0.00499999523162841797
0.55379939079284668 -4.07714176177978516 0.00500008463859558105
-1.08403480052947998 -6.81385087966918945 0.00499996542930603027
-1.67517828941345215 -6.52643632888793945 0.00500002503395080566
0.168839216232299805 -3.24677038192749023 0.12165367603302002
-0.915751814842224121 -6.75476884841918945 0.00499996542930603027
-1.59982383251190186 -6.56385707855224609 0.00499996542930603027
-1.70467853546142578 -6.27129316329956055 0.00499999523162841797
-1.81373679637908936 -6.59809350967407227 0.00499993562698364258
-1.81452858448028564 -6.58378410339355469 0.00499996542930603027
-0.850308537483215332 -6.82339191436767578 0.00499996542930603027
-0.864229679107666016 -6.73954200744628906 0.00499999523162841797
-1.45978319644927979 -6.78311300277709961 0.00499996542930603027
-2.36640453338623047 -5.34095621109008789 0.00500002503395080566
-0.473149120807647705 -6.67785406112670898 0.00499996542930603027
0.229372739791870117 -5.99849891662597656 0.00499999523162841797
-0.875068247318267822 -6.85848426818847656 0.00499996542930603027
1.27379465103149414 -4.80850982666015625 0.00500005483627319336
-1.45182299613952637 -4.07714176177978516 0.00500008463859558105
-1.61284101009368896 -5.644378662109375 0.00500005483627319336
-0.206928849220275879 -6.24203681945800781 0.00499999523162841797
-1.10027432441711426 -6.75178289413452148 0.00499990582466125488
-2.57118058204650879 -5.77449226379394531 0.00500002503395080566
-0.680808663368225098 -6.8665623664855957 0.00499999523162841797
-0.322792530059814453 -6.32547140121459961 0.00499999523162841797
-1.20740079879760742 -6.67407035827636719 0.00499996542930603027
-0.1629294753074646 -6.24203681945800781 0.00499999523162841797
-1.45264601707458496 -6.59809350967407227 0.00499999523162841797
-1.66818785667419434 -6.53199386596679688 0.00499996542930603027
-0.642891645431518555 -5.08524799346923828 0.00500002503395080566
-0.77220618724822998 -6.82103776931762695 0.00499996542930603027
-0.342063665390014648 -5.93658304214477539 0.00500005483627319336
-1.60610723495483398 -5.85084629058837891 0.00499999523162841797
-1.92992568016052246 -4.99989891052246094 0.00500005483627319336
-0.44276195764541626 -6.20051193237304688 0.00499999523162841797
-1.24656176567077637 -6.10754585266113281 0.00500002503395080566
-0.960876286029815674 -6.5587162971496582 0.00499996542930603027
0.188566207885742188 -6.01315021514892578 0.00499999523162841797
-0.750426411628723145 -6.81385087966918945 0.00499999523162841797
-1.17977750301361084 -6.84370326995849609 0.00499993562698364258
-1.60842859745025635 -6.77488851547241211 0.00499996542930603027
-0.536490857601165771 -4.45543384552001953 0.00500005483627319336
-1.14212846755981445 -6.73323774337768555 0.00499999523162841797
-0.62844550609588623 -6.31681632995605469 0.00499996542930603027
-0.76007544994354248 -6.80144453048706055 0.00499996542930603027
-0.593667864799499512 -6.79373073577880859 0.00499996542930603027
-1.3527061939239502 -6.81866264343261719 0.00499990582466125488
-0.52012944221496582 -5.83245182037353516 0.00500002503395080566
-1.58027970790863037 -5.16466045379638672 0.00500002503395080566
1.28028154373168945 -4.31505489349365234 0.00500002503395080566
-0.734759628772735596 -6.87050628662109375 0.00499996542930603027
-0.940569221973419189 -6.65851068496704102 0.00499999523162841797
-0.662997961044311523 -6.66246557235717773 0.00499996542930603027
-1.86219525337219238 -6.56893348693847656 0.00499999523162841797
-0.983488023281097412 -6.75772619247436523 0.00499996542930603027
-1.85874819755554199 -6.61638021469116211 0.00499999523162841797
0.400204062461853027 -3.98937869071960449 0.00500014424324035645
-1.55737149715423584 -6.58861255645751953 0.00499996542930603027
-1.44310879707336426 -6.75476884841918945 0.00499993562698364258
-1.73345136642456055 -6.31681632995605469 0.00499999523162841797
-1.19945609569549561 -6.6504664421081543 0.00499996542930603027
-0.625434517860412598 -6.77209568023681641 0.00499999523162841797
0.207936763763427734 -5.95258092880249023 0.00499999523162841797
-2.0104680061340332 -6.17857980728149414 0.00499996542930603027
0.25238192081451416 -5.81360578536987305 0.00500002503395080566
-1.66434335708618164 -6.37455081939697266 0.00499996542930603027
-1.23162555694580078 -6.85848426818847656 0.00499996542930603027
-1.22408068180084229 -6.31681632995605469 0.00499993562698364258
-0.975561738014221191 -6.58861255645751953 0.00499996542930603027
-1.58932805061340332 -5.93658351898193359 0.00500002503395080566
-1.09832000732421875 -6.86456680297851562 0.00499996542930603027
-4.75869560241699219 -3.46955657005310059 0.00500014424324035645
-0.216204226016998291 -5.69004726409912109 0.00499999523162841797
-0.452935695648193359 -6.44007968902587891 0.00500002503395080566
-2.00436258316040039 -4.45543384552001953 0.00500005483627319336
-2.56286311149597168 -5.66751956939697266 0.00500002503395080566
-0.834532856941223145 -6.76065540313720703 0.00499996542930603027
-0.734678149223327637 -6.86255550384521484 0.00499996542930603027
-0.319809913635253906 -5.644378662109375 0.00500008463859558105
-0.962189853191375732 -6.64223814010620117 0.00499993562698364258
-0.525294125080108643 -6.59338235855102539 0.00499999523162841797
-1.12218451499938965 -6.5587162971496582 0.00499996542930603027
0.0151704549789428711 -6.14409208297729492 0.00499996542930603027
-1.05138969421386719 -6.85014152526855469 0.00499999523162841797
-1.93365156650543213 -6.42627573013305664 0.00499996542930603027
-1.79348933696746826 -6.56893348693847656 0.00499999523162841797
-0.62414848804473877 -6.85434675216674805 0.00499996542930603027
-1.07782721519470215 -6.81866264343261719 0.00499996542930603027
-1.10817253589630127 -6.8665623664855957 0.00499999523162841797
-0.49538719654083252 -6.68159723281860352 0.00499993562698364258
-1.33011198043823242 -6.85642385482788086 0.00499996542930603027
-0.128991007804870605 -6.02749156951904297 0.00499999523162841797
-0.2632865309715271 -6.49147510528564453 0.00500002503395080566
-1.45838284492492676 -6.8039703369140625 0.00499996542930603027
-0.114392638206481934 -3.89680695533752441 0.00500014424324035645
-3.50987529754638672 -4.58347272872924805 0.00500008463859558105
-1.33949804306030273 -6.8665623664855957 0.00499996542930603027
0.138944149017333984 -5.93658304214477539 0.00499999523162841797
-0.633973002433776855 -5.08524799346923828 0.00500002503395080566
-1.60193145275115967 -6.29906845092773438 0.00499999523162841797
-1.5591895580291748 -6.16730213165283203 0.00499999523162841797
-1.94105970859527588 -5.4629054069519043 0.00500002503395080566
-1.57998871803283691 -6.69971895217895508 0.00499996542930603027
-0.301360905170440674 -6.06875038146972656 0.00499999523162841797
-1.71272385120391846 -6.58861255645751953 0.00499996542930603027
-0.742124855518341064 -5.83245182037353516 0.00500002503395080566
-0.627705574035644531 -5.88634443283081055 0.00500002503395080566
-0.895196259021759033 -6.61638021469116211 0.00499999523162841797
-0.83370053768157959 -6.44007968902587891 0.00499996542930603027
-1.25163698196411133 -6.72024154663085938 0.00499999523162841797
-1.52508759498596191 -6.72024154663085938 0.00499999523162841797
-1.06715810298919678 -6.38990020751953125 0.00499999523162841797
-2.26608037948608398 -4.80851078033447266 0.00500008463859558105
-0.474709630012512207 -5.23873424530029297 0.00500002503395080566
-1.21914267539978027 -6.54289150238037109 0.00499996542930603027
-1.71332812309265137 -6.45348548889160156 0.00499999523162841797
-1.11495614051818848 -5.40382146835327148 0.00500002503395080566
-1.37053108215332031 -6.6504664421081543 0.00499996542930603027
1.5409388542175293 -4.70072841644287109 0.00500005483627319336
-2.96580338478088379 -4.31505584716796875 0.00500005483627319336
-1.32531237602233887 -6.44683122634887695 0.00500002503395080566
-0.988509654998779297 -5.04335641860961914 0.00500002503395080566
-1.57136321067810059 -2.92238187789916992 0.00500017404556274414
0.698356866836547852 -3.21390724182128906 0.00500014424324035645
-1.28931236267089844 -6.77209568023681641 0.00499996542930603027
-1.25463306903839111 -6.86854171752929688 0.00499996542930603027
-1.01211404800415039 -6.79889631271362305 0.00499999523162841797
-2.56495428085327148 -5.77449226379394531 0.00500002503395080566
-1.23856759071350098 -6.86255550384521484 0.00499993562698364258
-0.339445292949676514 -6.26171112060546875 0.00499996542930603027
-1.25999438762664795 -6.71690893173217773 0.00499996542930603027
0.179914474487304688 -4.75573015213012695 0.00499999523162841797
-1.55855464935302734 -6.26171159744262695 0.00499999523162841797
-0.295924901962280273 -6.53199386596679688 0.00500002503395080566
-0.872188985347747803 -6.78311300277709961 0.00499996542930603027
-1.48447239398956299 -6.50344705581665039 0.00499996542930603027
-1.97929489612579346 -6.04153251647949219 0.00499999523162841797
-1.85086631774902344 -6.43322849273681641 0.00499999523162841797
-0.750353455543518066 -6.75476884841918945 0.00499996542930603027
1.69990658760070801 -2.58685398101806641 0.00500014424324035645
-1.34741878509521484 -6.09487390518188477 0.00499999523162841797
-5.21850204467773438 -2.92238283157348633 0.00500014424324035645
-1.52846276760101318 -6.37455081939697266 0.00499996542930603027
-0.123753011226654053 -6.02749156951904297 0.00499999523162841797
-1.35425269603729248 -6.87245464324951172 0.00499996542930603027
-1.91600871086120605 -5.16466045379638672 0.00499999523162841797
-2.26117181777954102 -6.10754585266113281 0.00499996542930603027
-2.06271481513977051 -6.33398532867431641 0.00500002503395080566
-1.82299709320068359 -6.47288322448730469 0.00499996542930603027
-1.93391382694244385 -5.6900477409362793 0.00500002503395080566
-0.590269327163696289 -6.70670270919799805 0.00499999523162841797
-1.36755752563476562 -6.75772619247436523 0.00499993562698364258
-0.685328006744384766 -6.59809350967407227 0.00499999523162841797
-1.77970743179321289 -6.16730213165283203 0.00499999523162841797
-1.05209946632385254 -6.75178289413452148 0.00499990582466125488
-0.741105258464813232 -6.86052799224853516 0.00499996542930603027
-1.31095683574676514 -6.84370326995849609 0.00499999523162841797
-3.46098208427429199 -4.7007293701171875 0.00500005483627319336
-1.6110231876373291 -6.73954200744628906 0.00499996542930603027
-0.0851863622665405273 -5.95258092880249023 0.00499999523162841797
-1.21182835102081299 -6.27129316329956055 0.00499999523162841797
-1.34608781337738037 -6.75772619247436523 0.00499993562698364258
-1.35921108722686768 -6.75476884841918945 0.00499993562698364258
-1.89684903621673584 -6.42627573013305664 0.00499996542930603027
-3.0820012092590332 -2.76071882247924805 0.00500014424324035645
-1.33883929252624512 -6.67024469375610352 0.00499996542930603027
-1.12831568717956543 -6.38990020751953125 0.00499999523162841797
-1.06491422653198242 -6.69258594512939453 0.00499996542930603027
0.659836649894714355 -5.4911341667175293 0.00500002503395080566
-1.2093346118927002 -6.87050628662109375 0.00499996542930603027
-0.938276290893554688 -6.76642990112304688 0.00499996542930603027
-0.433848261833190918 -6.45348548889160156 0.00500002503395080566
-2.40473747253417969 -5.23873424530029297 0.00500002503395080566
0.715182900428771973 -4.45543384552001953 0.00500005483627319336
-0.124174654483795166 -5.81360578536987305 0.00500002503395080566
-0.884552955627441406 -6.81866264343261719 0.00499996542930603027
-1.4047553539276123 -5.93658351898193359 0.00500002503395080566
-0.498800873756408691 -5.4911346435546875 0.00500005483627319336
-0.712125480175018311 -5.83245182037353516 0.00500002503395080566
-0.80917668342590332 -6.79373073577880859 0.00499996542930603027
-0.61154407262802124 -6.78311300277709961 0.00499996542930603027
-1.20766139030456543 -6.58378410339355469 0.00499996542930603027
-0.879384636878967285 -6.66637659072875977 0.00499996542930603027
-0.435812711715698242 -6.49750232696533203 0.00499999523162841797
0.151607632637023926 -5.644378662109375 0.00500008463859558105
1.97567033767700195 -2.76071739196777344 0.00500014424324035645
-1.16091787815093994 -6.84801292419433594 0.00499993562698364258
-0.807475805282592773 -6.86854171752929688 0.00499996542930603027
-1.33854496479034424 -5.99849939346313477 0.00499999523162841797
-0.739356875419616699 -6.31681632995605469 0.00499996542930603027
0.0560477972030639648 -4.23966693878173828 0.00500008463859558105
-0.24017798900604248 -6.29906797409057617 0.00499996542930603027
-1.60610675811767578 -5.71198654174804688 0.00500005483627319336
-1.23961150646209717 -6.7963252067565918 0.00499999523162841797
-0.922456860542297363 -6.41205501556396484 0.00500002503395080566
-0.648447990417480469 -6.33398532867431641 0.00500002503395080566
-1.25392162799835205 -6.81866264343261719 0.00499996542930603027
0.988643169403076172 -4.70072841644287109 0.00500005483627319336
-1.42011141777038574 -6.85642385482788086 0.00499996542930603027
-1.08462131023406982 -6.65451145172119141 0.00499999523162841797
-0.689949572086334229 -6.50931119918823242 0.00499996542930603027
-3.28569912910461426 -4.52089214324951172 0.00500008463859558105
-1.61644434928894043 -6.83932161331176758 0.00499993562698364258
-0.633914291858673096 -6.79889631271362305 0.00499999523162841797
-1.40671205520629883 -6.47288322448730469 0.00500002503395080566
-1.15094077587127686 -6.78580379486083984 0.00499999523162841797
-1.711220383644104 -6.74264764785766602 0.00499993562698364258
-1.65998280048370361 -5.644378662109375 0.00500005483627319336
-0.722071826457977295 -6.52080440521240234 0.00499999523162841797
-0.608337461948394775 -5.37288379669189453 0.00499999523162841797
-0.903162717819213867 -5.8688054084777832 0.00500002503395080566
-0.947066545486450195 -6.63805246353149414 0.00499996542930603027
-1.02425336837768555 -6.83261013031005859 0.00499996542930603027
-0.858244776725769043 -6.86854171752929688 0.00499996542930603027
-0.931942462921142578 -6.85014152526855469 0.00499999523162841797
-0.638692617416381836 -6.54289150238037109 0.00499999523162841797
-2.72065091133117676 -5.6900477409362793 0.00500005483627319336
-1.50905013084411621 -5.71198654174804688 0.00500005483627319336
-0.795539557933807373 -6.82804012298583984 0.00499993562698364258
-1.22800171375274658 -6.84801292419433594 0.00499993562698364258
-1.44179558753967285 -6.31681632995605469 0.00499993562698364258
-0.776541829109191895 -6.82804012298583984 0.00499996542930603027
-1.22557258605957031 -6.60734653472900391 0.00499999523162841797
-0.912355661392211914 -6.72024154663085938 0.00499999523162841797
-1.10596776008605957 -6.8415217399597168 0.00499993562698364258
-1.35299849510192871 -6.84586715698242188 0.00499993562698364258
-0.342897713184356689 -6.46004390716552734 0.00499999523162841797
-1.41354286670684814 -6.73640537261962891 0.00499993562698364258
-1.32202529907226562 -6.63381862640380859 0.00499996542930603027
-0.289286792278289795 -6.1558079719543457 0.00499996542930603027
-1.18386554718017578 -6.63805246353149414 0.00499999523162841797
-1.20970606803894043 -6.84801292419433594 0.00499993562698364258
-0.580904543399810791 -6.36669445037841797 0.00499999523162841797
-0.952120542526245117 -5.83245182037353516 0.00500002503395080566
0.342668414115905762 -2.85727834701538086 0.685026109218597412
-0.0247023105621337891 -6.27129316329956055 0.00499999523162841797
1.06170654296875 -3.07308483123779297 0.00500011444091796875
-0.294116675853729248 -6.49147510528564453 0.00500002503395080566
-0.958884000778198242 -6.85225296020507812 0.00499999523162841797
-0.568479180335998535 -6.01315021514892578 0.00499999523162841797
-1.65121245384216309 -6.79111242294311523 0.00499996542930603027
-2.01704740524291992 -6.41205501556396484 0.00499999523162841797
-1.44520831108093262 -6.7963252067565918 0.00499999523162841797
0.197720527648925781 -5.81360578536987305 0.00500002503395080566
-1.1437002420425415 -6.57394552230834961 0.00499996542930603027
-2.37978005409240723 -5.23873424530029297 0.00500002503395080566
-0.390932440757751465 -6.28071022033691406 0.00499999523162841797
-0.931456565856933594 -5.4911346435546875 0.00500005483627319336
-1.00215756893157959 -5.77449226379394531 0.00500002503395080566
-1.45525217056274414 -4.95478582382202148 0.00500002503395080566
-0.521606922149658203 -6.76355648040771484 0.00499993562698364258
-0.174558758735656738 -5.54515552520751953 0.00500002503395080566
-0.840537428855895996 -3.98937892913818359 0.00500011444091796875
-2.16881942749023438 -4.7007288932800293 0.00500005483627319336
-0.662561416625976562 -6.74264764785766602 0.00499993562698364258
-2.06038761138916016 -6.27129316329956055 0.00499996542930603027
-2.11572170257568359 -6.29906845092773438 0.00499996542930603027
-1.06564176082611084 -6.70322895050048828 0.00499996542930603027
-1.16724801063537598 -6.49750232696533203 0.00499996542930603027
-2.01239991188049316 -5.90347766876220703 0.00500002503395080566
-1.03715050220489502 -6.39739799499511719 0.00500002503395080566
-1.76478338241577148 -6.48536443710327148 0.00500002503395080566
-1.39491128921508789 -3.98937892913818359 0.00500008463859558105
-1.73932790756225586 -6.69971895217895508 0.00499996542930603027
-0.769167840480804443 -6.87245464324951172 0.00499996542930603027
-0.839029073715209961 -6.80895423889160156 0.00499996542930603027
-1.29831647872924805 -6.78039693832397461 0.00499993562698364258
-0.960310041904449463 -6.46004390716552734 0.00499999523162841797
-0.571246206760406494 -6.6504664421081543 0.00499999523162841797
-2.7060539722442627 -4.23966741561889648 0.00500011444091796875
-0.695220708847045898 -6.75476884841918945 0.00499996542930603027
-1.73929023742675781 -6.23193502426147461 0.00499999523162841797
-0.955965042114257812 -6.82804012298583984 0.00499993562698364258
-0.522877931594848633 -6.66637659072875977 0.00499996542930603027
-2.3704979419708252 -4.1604619026184082 0.00500008463859558105
-0.972514986991882324 -6.69258594512939453 0.00499996542930603027
-0.896310806274414062 -5.77449226379394531 0.00500002503395080566
-1.79638671875 -6.66246557235717773 0.00499996542930603027
-1.46385288238525391 -6.62520170211791992 0.00499996542930603027
-0.864268839359283447 -6.69971895217895508 0.00499996542930603027
-0.695396959781646729 -6.84801292419433594 0.00499996542930603027
-1.55091822147369385 -6.48536443710327148 0.00500002503395080566
-0.596515893936157227 -6.53199386596679688 0.00499996542930603027
-1.35166263580322266 -6.82103776931762695 0.00499996542930603027
-0.0643326044082641602 -5.98352766036987305 0.00500002503395080566
-1.62342739105224609 -6.62953519821166992 0.00499993562698364258
-1.42277777194976807 -6.32547187805175781 0.00500002503395080566
-1.2122417688369751 -6.82339191436767578 0.00499996542930603027
-0.501240670680999756 -6.50344705581665039 0.00500002503395080566
-1.61374485492706299 -6.71690893173217773 0.00499993562698364258
-2.4833979606628418 -5.30799007415771484 0.00500002503395080566
-0.986152946949005127 -6.87245464324951172 0.00499996542930603027
-1.22865509986877441 -6.52080440521240234 0.00500002503395080566
-0.71289592981338501 -5.4629054069519043 0.00499996542930603027
-1.12302172183990479 -6.49750232696533203 0.00499996542930603027
-0.628213703632354736 -6.85225248336791992 0.00499993562698364258
0.428165197372436523 -3.01424694061279297 0.780630946159362793
-1.36390280723571777 -6.76642990112304688 0.00499999523162841797
-1.30561316013336182 -6.8415217399597168 0.00499999523162841797
-0.984100103378295898 -6.76065540313720703 0.00499996542930603027
-1.29130125045776367 -6.30801677703857422 0.00499999523162841797
-0.630894660949707031 -6.61189031600952148 0.00499996542930603027
-0.920258700847625732 -6.84586715698242188 0.00499993562698364258
-1.49802148342132568 -6.73954200744628906 0.00499996542930603027
-0.380898952484130859 -4.85919952392578125 0.00500008463859558105
-1.24460911750793457 -6.76355648040771484 0.00499996542930603027
-1.35772490501403809 -6.46004390716552734 0.00499996542930603027
-0.805137157440185547 -6.76355648040771484 0.00499993562698364258
-1.23742294311523438 -6.78580379486083984 0.00499999523162841797
-1.83456790447235107 -6.44007968902587891 0.00499999523162841797
-1.38837969303131104 -6.49750232696533203 0.00499996542930603027
1.00232481956481934 -3.34578895568847656 0.00500017404556274414
-1.56444728374481201 -6.86052799224853516 0.00499999523162841797
-1.43700075149536133 -6.46650934219360352 0.00500002503395080566
-0.306994974613189697 -6.36669445037841797 0.00499999523162841797
-2.0108797550201416 -6.11996793746948242 0.00500002503395080566
0.598353028297424316 -4.75573015213012695 0.00500002503395080566
-1.37174451351165771 -6.33398532867431641 0.00499999523162841797
-0.415089130401611328 -6.39739799499511719 0.00500002503395080566
-1.44065916538238525 -6.67407035827636719 0.00499996542930603027
-2.04888725280761719 -6.29906845092773438 0.00499996542930603027
-0.63002777099609375 -6.77488851547241211 0.00499993562698364258
-1.11932098865509033 -5.96822547912597656 0.00500002503395080566
-1.35736846923828125 -6.09487390518188477 0.00499999523162841797
-2.49815654754638672 -4.58347272872924805 0.00500011444091796875
-0.916254401206970215 -6.22165012359619141 0.00499999523162841797
-2.38690662384033203 -3.79902052879333496 0.00500014424324035645
-0.950169801712036133 -5.81360626220703125 0.00500002503395080566
-1.18080711364746094 -6.45348548889160156 0.00499996542930603027
-0.588945269584655762 -6.37455081939697266 0.00499999523162841797
-2.74031925201416016 -5.6900477409362793 0.00500005483627319336
-1.23614788055419922 -6.49147510528564453 0.00499996542930603027
-0.678716063499450684 -6.77488851547241211 0.00499999523162841797
-1.49048864841461182 -5.5185394287109375 0.00500005483627319336
-0.490835189819335938 -4.16046142578125 0.00500005483627319336
-0.898971438407897949 -6.87245464324951172 0.00499996542930603027
-0.721156775951385498 -6.69617128372192383 0.00499993562698364258
-0.798411369323730469 -6.6504664421081543 0.00499999523162841797
-0.792010009288787842 -6.08194446563720703 0.00499999523162841797
1.84933066368103027 -2.58685398101806641 0.00500020384788513184
-1.34455633163452148 -6.74264764785766602 0.00499996542930603027
-1.74257516860961914 -6.73323774337768555 0.00499996542930603027
-2.14856576919555664 -6.21117782592773438 0.00499999523162841797
-0.914887666702270508 -6.72024154663085938 0.00499999523162841797
-0.980153501033782959 -6.23193502426147461 0.00499999523162841797
-1.44411122798919678 -6.71014022827148438 0.00499993562698364258
-0.468217730522155762 -4.45543384552001953 0.00500005483627319336
-0.326947927474975586 -6.49750232696533203 0.00499999523162841797
-0.713495612144470215 -6.53747844696044922 0.00499999523162841797
-1.33944547176361084 -6.51509666442871094 0.00500002503395080566
-1.49337029457092285 -6.46650934219360352 0.00499996542930603027
-1.0959848165512085 -6.26171159744262695 0.00499999523162841797
0.46384429931640625 -5.59615468978881836 0.00500002503395080566
-1.00367975234985352 -6.85434675216674805 0.00499996542930603027
-0.87184828519821167 -6.87245464324951172 0.00499996542930603027
-0.35657346248626709 -6.41921854019165039 0.00499999523162841797
-1.24147880077362061 -6.8665623664855957 0.00499996542930603027
-1.60164070129394531 -6.7963252067565918 0.00499999523162841797
-1.82807815074920654 -6.23193502426147461 0.00500002503395080566
-0.799156665802001953 -6.86456680297851562 0.00499999523162841797
-0.690535426139831543 -6.79111242294311523 0.00499999523162841797
-1.55259609222412109 -6.38990020751953125 0.00499999523162841797
-2.25558328628540039 -5.75418758392333984 0.00499999523162841797
-0.777178347110748291 -6.81866264343261719 0.00499996542930603027
-1.2990107536315918 -6.33398532867431641 0.00499999523162841797
-1.07304096221923828 -5.8688054084777832 0.00500002503395080566
-1.56689751148223877 -4.85919952392578125 0.00500005483627319336
0.175786972045898438 -2.76071786880493164 0.00500014424324035645
-1.09391450881958008 -6.38990020751953125 0.00499999523162841797
-0.961624741554260254 -5.66751956939697266 0.00499999523162841797
-0.647683382034301758 -6.63381862640380859 0.00499993562698364258
-0.297363936901092529 -3.07308530807495117 0.00500014424324035645
-1.6763385534286499 -6.78847026824951172 0.00499996542930603027
0.191647052764892578 -5.81360578536987305 0.00500002503395080566
-1.58874094486236572 -6.47916746139526367 0.00499999523162841797
2.18212056159973145 -3.98937821388244629 0.00500011444091796875
-2.39626264572143555 -5.04335689544677734 0.00500005483627319336
-1.29811215400695801 -6.85642385482788086 0.00499996542930603027
1.46792030334472656 -2.92238092422485352 0.00500017404556274414
0.103425383567810059 -6.13214778900146484 0.00499999523162841797
-0.929192543029785156 -6.64637565612792969 0.00499993562698364258
-1.68146359920501709 -6.70322895050048828 0.00499996542930603027
-1.20777201652526855 -5.8688054084777832 0.00500002503395080566
-1.7045588493347168 -5.96822547912597656 0.00499996542930603027
-1.09036481380462646 -6.86255550384521484 0.00499993562698364258
-2.1136627197265625 -6.08194494247436523 0.00499999523162841797
-1.29336714744567871 -6.81626749038696289 0.00499990582466125488
-0.678380012512207031 -6.83710336685180664 0.00499993562698364258
-1.50457215309143066 -6.64637565612792969 0.00499993562698364258
-1.03328895568847656 -5.77449226379394531 0.00500002503395080566
-2.07991623878479004 -6.38228511810302734 0.00499999523162841797
-0.414616048336029053 -6.62081670761108398 0.00499999523162841797
-1.12772834300994873 -5.66751956939697266 0.00499999523162841797
-1.03887474536895752 -5.99849939346313477 0.00499999523162841797
-2.35747957229614258 -6.06875038146972656 0.00499996542930603027
-1.41753995418548584 -6.65851068496704102 0.00499999523162841797
-4.80438518524169922 -3.46955657005310059 0.00500014424324035645
-0.482787907123565674 -6.51509618759155273 0.00499999523162841797
-1.06536471843719482 -5.23873424530029297 0.00499999523162841797
-0.738052964210510254 -6.62520170211791992 0.00499999523162841797
-1.44744300842285156 -6.7963252067565918 0.00499999523162841797
-1.21060419082641602 -6.73954200744628906 0.00499999523162841797
-0.86512070894241333 -6.85434675216674805 0.00499996542930603027
-0.583720982074737549 -6.44683122634887695 0.00499999523162841797
-0.895485579967498779 -6.67407035827636719 0.00499996542930603027
-0.552031517028808594 -5.54515552520751953 0.00499999523162841797
-1.71489012241363525 -4.58347225189208984 0.00500008463859558105
-1.32828629016876221 -6.36669445037841797 0.00500002503395080566
-1.67085051536560059 -6.67785406112670898 0.00499996542930603027
-2.08361196517944336 -4.38689613342285156 0.00500011444091796875
-1.03652787208557129 -6.21117782592773438 0.00499999523162841797
-0.720602452754974365 -6.69971895217895508 0.00499999523162841797
-1.31429409980773926 -6.67024469375610352 0.00499996542930603027
-1.49611043930053711 -6.51509666442871094 0.00500002503395080566
-1.26282382011413574 -6.80144453048706055 0.00499996542930603027
-1.93733179569244385 -6.42627573013305664 0.00499996542930603027
-1.99091053009033203 -6.47288322448730469 0.00499996542930603027
-3.13515973091125488 -4.85920000076293945 0.00500005483627319336
-0.814117074012756348 -6.58861255645751953 0.00499996542930603027
-1.41419649124145508 -6.76927614212036133 0.00499996542930603027
-0.719310641288757324 -6.54289150238037109 0.00500002503395080566
-1.00762581825256348 -6.73003768920898438 0.00499993562698364258
-1.32470095157623291 -6.85014152526855469 0.00499996542930603027
-2.42168951034545898 -6.0552825927734375 0.00500002503395080566
-2.49931573867797852 -5.4629054069519043 0.00499996542930603027
-0.970308959484100342 -6.62520170211791992 0.00499999523162841797
-1.64515161514282227 -6.65451145172119141 0.00499996542930603027
-0.936704874038696289 -6.85225248336791992 0.00499993562698364258
0.768218159675598145 -5.30799007415771484 0.00500005483627319336
-0.294505655765533447 -6.08194446563720703 0.00499996542930603027
-0.827319800853729248 -6.24203681945800781 0.00499999523162841797
0.27550661563873291 -5.69004726409912109 0.00500005483627319336
-1.88596463203430176 -6.47288322448730469 0.00499996542930603027
-1.57705390453338623 -6.83710336685180664 0.00499996542930603027
-0.35419851541519165 -6.23193502426147461 0.00499996542930603027
-0.260866165161132812 -6.1558079719543457 0.00499996542930603027
-1.32325553894042969 -6.11996793746948242 0.00499996542930603027
1.02147388458251953 -4.99989843368530273 0.00500002503395080566
-0.833964049816131592 -6.74876737594604492 0.00499996542930603027
-3.20458531379699707 -5.04335689544677734 0.00500005483627319336
-1.5317157506942749 -5.90347766876220703 0.00499999523162841797
-1.81305265426635742 -5.93658351898193359 0.00500002503395080566
-0.593554496765136719 -6.64637565612792969 0.00499999523162841797
-1.5366363525390625 -6.47916746139526367 0.00499999523162841797
-0.96552664041519165 -6.72024154663085938 0.00499999523162841797
-1.43799805641174316 -6.68529987335205078 0.00499999523162841797
-1.56006050109863281 -5.40382146835327148 0.00500002503395080566
-1.18015992641448975 -6.87050628662109375 0.00499996542930603027
-2.52364063262939453 -5.30799007415771484 0.00500002503395080566
-1.50913035869598389 -6.33398532867431641 0.00500005483627319336
-2.65430974960327148 -5.23873424530029297 0.00500002503395080566
-0.859176218509674072 -5.85084629058837891 0.00500002503395080566
-2.40021085739135742 -6.01315069198608398 0.00499999523162841797
-0.410826921463012695 -6.20051193237304688 0.00499999523162841797
-0.726747810840606689 -6.64223814010620117 0.00499993562698364258
-1.9046778678894043 -6.56385707855224609 0.00499999523162841797
2.82429909706115723 -3.21390676498413086 0.00500014424324035645
-1.5382230281829834 -5.92021942138671875 0.00499996542930603027
-1.77759706974029541 -5.37288379669189453 0.00500002503395080566
-1.36258268356323242 -6.01315069198608398 0.00499999523162841797
-1.50989055633544922 -6.82103776931762695 0.00499993562698364258
-1.13241732120513916 -6.72680521011352539 0.00499996542930603027
-1.47802460193634033 -6.68529987335205078 0.00499999523162841797
-0.841757416725158691 -6.64637565612792969 0.00499999523162841797
-1.27738714218139648 -6.38990020751953125 0.00499999523162841797
-2.09432029724121094 -6.21117782592773438 0.00499999523162841797
-1.44696724414825439 -6.83932161331176758 0.00499996542930603027
-1.22051095962524414 -6.81385087966918945 0.00499996542930603027
-2.01319408416748047 -4.99989891052246094 0.00500005483627319336
-1.63475871086120605 -6.55350923538208008 0.00499996542930603027
2.12414312362670898 -3.69556403160095215 0.00500011444091796875
-1.55992400646209717 -6.85434675216674805 0.00499993562698364258
0.406855344772338867 -2.76960897445678711 0.0059756934642791748
-0.748815059661865234 -4.75573062896728516 0.00500005483627319336
-1.00704121589660645 -6.06875038146972656 0.00499999523162841797
-1.96250486373901367 -6.44683122634887695 0.00500002503395080566
0.297684788703918457 -5.20233011245727539 0.00500002503395080566
-1.66203856468200684 -5.93658351898193359 0.00500002503395080566
1.58135676383972168 -4.58347177505493164 0.00500008463859558105
-0.548911929130554199 -6.70670270919799805 0.00499999523162841797
-0.483821213245391846 -6.20051193237304688 0.00499999523162841797
0.184515476226806641 -5.98352766036987305 0.00499996542930603027
-0.593925952911376953 -6.23193502426147461 0.00499996542930603027
-0.187000751495361328 -6.40478229522705078 0.00499999523162841797
-3.29006338119506836 -4.75573062896728516 0.00500005483627319336
-1.29654598236083984 -6.58378410339355469 0.00499996542930603027
-0.730575323104858398 -5.90347766876220703 0.00500002503395080566
-0.886402308940887451 -6.56385707855224609 0.00499996542930603027
-1.75321531295776367 -6.35060262680053711 0.00499996542930603027
1.73249316215515137 -2.39935493469238281 0.00500017404556274414
-0.560746848583221436 -5.59615516662597656 0.00500005483627319336
-0.763091742992401123 -6.65851068496704102 0.00499996542930603027
-1.43235588073730469 -6.33398532867431641 0.00500005483627319336
-1.02551281452178955 -6.73323774337768555 0.00499999523162841797
-1.43866944313049316 -6.83261013031005859 0.00499993562698364258
-1.64707100391387939 -5.62059926986694336 0.00500005483627319336
-0.241425216197967529 -6.35871219635009766 0.00499999523162841797
-0.90669703483581543 -6.50344705581665039 0.00500002503395080566
-3.43809723854064941 -4.45543479919433594 0.00500008463859558105
-1.05329406261444092 -6.64637565612792969 0.00499993562698364258
-0.462178051471710205 -6.68896245956420898 0.00499993562698364258
-1.50438141822814941 -6.73323774337768555 0.00499996542930603027
-1.8287360668182373 -6.15580844879150391 0.00500002503395080566
-0.399837791919708252 -5.23873424530029297 0.00500002503395080566
-0.959688186645507812 -6.71690893173217773 0.00499996542930603027
-1.10300207138061523 -5.98352766036987305 0.00499999523162841797
-1.80177152156829834 -6.62081718444824219 0.00499999523162841797
-0.722301125526428223 -6.56893348693847656 0.00499999523162841797
0.950391530990600586 -4.58347225189208984 0.00500008463859558105
-0.113107621669769287 -5.99849891662597656 0.00499999523162841797
-1.7436835765838623 -6.67785406112670898 0.00499996542930603027
0.0764009952545166016 -6.17857980728149414 0.00499999523162841797
-1.70039463043212891 -6.65851068496704102 0.00499996542930603027
-1.49748992919921875 -6.57394552230834961 0.00499996542930603027
-0.431356668472290039 -3.98937869071960449 0.00500008463859558105
-1.97787570953369141 -6.29906845092773438 0.00499996542930603027
-0.633367359638214111 -6.48536396026611328 0.00499996542930603027
-1.40627384185791016 -6.78039693832397461 0.00499993562698364258
-0.253593981266021729 -6.17857980728149414 0.00499999523162841797
-1.03015100955963135 -6.84370326995849609 0.00499993562698364258
0.801928162574768066 -5.08524799346923828 0.00500005483627319336
-1.09025990962982178 -6.8064732551574707 0.00499996542930603027
-1.45253121852874756 -6.76355648040771484 0.00499996542930603027
-0.804370403289794922 -6.80144453048706055 0.00499996542930603027
-0.397652149200439453 -5.62059926986694336 0.00499999523162841797
-0.634696781635284424 -6.68896245956420898 0.00499993562698364258
-1.75486171245574951 -6.0552825927734375 0.00500002503395080566
-1.61481344699859619 -6.81141328811645508 0.00499996542930603027
-0.826362371444702148 -6.84586715698242188 0.00499996542930603027
-1.79444646835327148 -6.13214778900146484 0.00499996542930603027
-0.749065816402435303 -6.76065540313720703 0.00499996542930603027
-1.89510703086853027 -5.79429197311401367 0.00499999523162841797
-1.24554407596588135 -6.83486604690551758 0.00499993562698364258
-0.816194891929626465 -6.70322895050048828 0.00499996542930603027
-1.53209149837493896 -6.57889556884765625 0.00499999523162841797
-0.833008348941802979 -6.47288322448730469 0.00500002503395080566
-0.83288729190826416 -6.7963252067565918 0.00499996542930603027
-1.23762643337249756 -6.73954200744628906 0.00499999523162841797
-0.646234750747680664 -6.40478229522705078 0.00499999523162841797
-0.812225461006164551 -6.76355648040771484 0.00499993562698364258
-1.15820133686065674 -6.78039693832397461 0.00499996542930603027
-1.91511869430541992 -5.90347766876220703 0.00500002503395080566
-3.39693069458007812 -4.52089214324951172 0.00500008463859558105
-1.04752480983734131 -6.73003768920898438 0.00499993562698364258
-0.828034162521362305 -6.5587162971496582 0.00499996542930603027
-0.628945708274841309 -6.82103776931762695 0.00499996542930603027
-1.28997802734375 -6.65851068496704102 0.00499999523162841797
-1.88443338871002197 -6.46650934219360352 0.00499996542930603027
-0.793430507183074951 -6.61189031600952148 0.00499996542930603027
-1.43598711490631104 -6.84370326995849609 0.00499999523162841797
-0.870993912220001221 -6.68159723281860352 0.00499999523162841797
-1.29377436637878418 -6.65451145172119141 0.00499996542930603027
-1.561279296875 -6.41205501556396484 0.00499996542930603027
-3.28526687622070312 -4.16046237945556641 0.00500008463859558105
-0.536213815212249756 -6.23193502426147461 0.00499996542930603027
-1.21345579624176025 -6.29906845092773438 0.00499999523162841797
-1.55775558948516846 -6.71690893173217773 0.00499996542930603027
-0.837258815765380859 -6.71014022827148438 0.00499996542930603027
-0.69443202018737793 -6.85434675216674805 0.00499996542930603027
-1.18910396099090576 -6.55350923538208008 0.00499996542930603027
-0.84843599796295166 -6.69258594512939453 0.00499996542930603027
-0.292530417442321777 -6.54823493957519531 0.00499996542930603027
-0.52805936336517334 -6.68529987335205078 0.00499999523162841797
-1.27413618564605713 -6.86255550384521484 0.00499993562698364258
-1.51937317848205566 -6.60274791717529297 0.00499996542930603027
-1.18543350696563721 -6.6504664421081543 0.00499996542930603027
-2.09806013107299805 -5.81360626220703125 0.00500002503395080566
-1.07604134082794189 -5.37288379669189453 0.00500002503395080566
-1.31099581718444824 -6.83261013031005859 0.00499993562698364258
-2.00210213661193848 -6.18964767456054688 0.00499996542930603027
-0.828679382801055908 -6.86456680297851562 0.00499999523162841797
-0.125454068183898926 -5.16466045379638672 0.00500008463859558105
-1.02121245861053467 -6.81385087966918945 0.00499996542930603027
-1.69467079639434814 -6.5587162971496582 0.00499996542930603027
-2.59605288505554199 -3.89680719375610352 0.00500008463859558105
-1.06550073623657227 -6.50344705581665039 0.00500002503395080566
-3.04942178726196289 -4.99989891052246094 0.00500002503395080566
-4.19709968566894531 -4.23966789245605469 0.00500008463859558105
-2.00431227684020996 -5.95258140563964844 0.00500002503395080566
0.136077642440795898 -2.77454853057861328 0.706364572048187256
-1.82216572761535645 -6.54289150238037109 0.00499996542930603027
-1.40187084674835205 -6.64223814010620117 0.00499999523162841797
-1.01392543315887451 -6.21117782592773438 0.00499999523162841797
-1.46123313903808594 -6.8064732551574707 0.00499996542930603027
-2.27536296844482422 -3.79902052879333496 0.00500014424324035645
-0.818466901779174805 -6.81141328811645508 0.00499993562698364258
-2.89702987670898438 -5.34095621109008789 0.00499999523162841797
-0.92118382453918457 -6.86456680297851562 0.00499999523162841797
-3.54713606834411621 -2.39935636520385742 0.00500014424324035645
-0.961229383945465088 -6.72354030609130859 0.00499996542930603027
-0.843458771705627441 -5.4911346435546875 0.00500005483627319336
-1.56064093112945557 -6.83932161331176758 0.00499993562698364258
-1.83137202262878418 -5.85084629058837891 0.00500002503395080566
-0.811359167098999023 -6.78039693832397461 0.00499996542930603027
-0.996177315711975098 -6.58378410339355469 0.00499996542930603027
-0.50066763162612915 -6.62953519821166992 0.00499993562698364258
-0.765558838844299316 -5.77449226379394531 0.00500002503395080566
0.146175861358642578 -3.21538591384887695 0.443231672048568726
-0.616121888160705566 -6.32547140121459961 0.00499996542930603027
-0.79650580883026123 -6.81866264343261719 0.00499996542930603027
-2.00034046173095703 -5.12565708160400391 0.00500002503395080566
-1.54571247100830078 -6.69617128372192383 0.00499993562698364258
-1.65179944038391113 -6.06875038146972656 0.00499999523162841797
-1.01483261585235596 -6.78847026824951172 0.00499996542930603027
-1.89750170707702637 -6.41205501556396484 0.00499999523162841797
-1.12563371658325195 -6.69258594512939453 0.00499996542930603027
-0.353662312030792236 -6.18964767456054688 0.00499999523162841797
-1.37622416019439697 -6.41921854019165039 0.00499999523162841797
-1.96147918701171875 -5.20233058929443359 0.00500005483627319336
-0.53711545467376709 -6.73640537261962891 0.00499996542930603027
-0.799691498279571533 -6.80895423889160156 0.00499990582466125488
-1.47149336338043213 -6.6504664421081543 0.00499996542930603027
-1.75502204895019531 -6.66246557235717773 0.00499996542930603027
-0.728799939155578613 -6.68159723281860352 0.00499993562698364258
-1.32839775085449219 -6.71014022827148438 0.00499993562698364258
-0.583195626735687256 -6.76642990112304688 0.00499996542930603027
-0.81038278341293335 -6.41205501556396484 0.00500002503395080566
-0.230897188186645508 -6.30801677703857422 0.00499996542930603027
-1.026985764503479 -6.36669445037841797 0.00500002503395080566
-1.64468097686767578 -6.71014022827148438 0.00499993562698364258
-0.77004086971282959 -6.47288322448730469 0.00500002503395080566
-1.80410170555114746 -5.62059926986694336 0.00499999523162841797
-1.55426502227783203 -6.73640537261962891 0.00499993562698364258
-1.52401185035705566 -6.13214778900146484 0.00499996542930603027
-1.33337879180908203 -6.81866264343261719 0.00499990582466125488
-1.95014047622680664 -5.57101726531982422 0.00500002503395080566
-1.04878687858581543 -5.4911346435546875 0.00500005483627319336
-0.684669613838195801 -6.85225248336791992 0.00499993562698364258
-1.23076927661895752 -6.72354030609130859 0.00499996542930603027
-1.27482068538665771 -6.87245464324951172 0.00499996542930603027
-1.61475467681884766 -6.26171159744262695 0.00499996542930603027
-1.14772176742553711 -6.55350923538208008 0.00499996542930603027
-1.21011269092559814 -6.84586715698242188 0.00499993562698364258
-1.6965179443359375 -6.21117782592773438 0.00499999523162841797
-0.809360265731811523 -6.60734653472900391 0.00499993562698364258
0.295956850051879883 -4.52089118957519531 0.00500005483627319336
